# .PCD v0.7 - Point Cloud Data file format
VERSION 0.7
FIELDS x y z
SIZE 4 4 4
TYPE F F F
COUNT 1 1 1
WIDTH 1288
HEIGHT 1
VIEWPOINT 0 0 0 1 0 0 0
POINTS 1288
DATA ascii
0.04064402 -0.056165297 0.0015312351
0.0010624587 -0.056543738 0.0025503656
0.0016279747 -0.056538865 0.0026705044
0.0022370161 -0.056547154 0.0024327203
0.005737321 -0.056551132 0.0022502479
0.0062937038 -0.056543406 0.0024477208
0.0068881735 -0.056547664 0.0023193741
0.0086412784 -0.056551136 0.0021871207
0.010002079 -0.05655317 0.0021021147
0.011138161 -0.056545082 0.0022963546
0.011918705 -0.056547321 0.0022182027
0.012508669 -0.05655057 0.0021168916
0.0132749 -0.056548156 0.0021652305
0.01406844 -0.056554995 0.0019619688
0.015025888 -0.056551974 0.0020224545
0.048755761 0.05141373 0.0022032748
0.052581389 0.05137755 0.0021830988
0.057146281 0.051389996 0.0025197007
0.07015615 0.051546622 0.0017902814
0.071306571 0.05151106 0.0016231397
0.07243593 0.051545735 0.0019102967
0.073024854 0.05147915 0.0015108683
0.073597357 0.051468659 0.0014743758
0.074351922 0.051485747 0.0016267111
0.075107738 0.05149883 0.0017531165
0.076256536 0.051462073 0.0015778604
0.076635934 0.051462814 0.0016034939
0.077788621 0.051407661 0.0013090344
0.07855235 0.051387783 0.0012219343
0.079678297 0.051438026 0.0016094698
0.080823712 0.051407516 0.0014742767
0.081582233 0.051408224 0.0015203091
0.083117999 0.051322516 0.0010482799
0.085011266 0.051332522 0.0012164058
0.086337499 0.051334709 0.001302737
0.088236466 0.051497489 0.0012328164
0.089183763 0.05131362 0.0013206326
0.091081597 0.051659834 0.0012116446
0.091852576 0.051572695 0.00068981014
0.092603818 0.051612001 0.00098474859
0.094499633 0.051591355 0.00095378072
0.09526895 0.051497635 0.00038917363
0.096395969 0.051561493 0.00086309109
0.096970633 0.051501613 0.00050679222
0.099044412 0.051924087 0.00090321526
0.10018914 0.051820919 0.00029941136
0.10093896 0.051890306 0.00078744255
0.10150766 0.051873744 0.000711211
0.1077491 0.051796492 0.00054804841
0.11794242 0.05164792 0.00013354653
0.12020606 0.051238138 4.4892076e-05
0.035689116 0.050850987 0.0027637375
0.039153334 0.051176377 0.0025954552
0.039897569 0.051212821 0.0028754142
0.04143684 0.050999276 0.0028134419
0.043371167 0.051135302 0.0025667334
0.043744903 0.050773028 0.0027108467
0.047410522 0.050872408 0.0023222794
0.04817462 0.050868597 0.0023403424
0.049481489 0.051116716 0.0027901218
0.050280154 0.050659049 0.0023334832
0.051448256 0.050602354 0.0020282441
0.052200936 0.050999828 0.0021805894
0.052570242 0.050649799 0.0024013596
0.05353247 0.050626837 0.0023050192
0.054883346 0.05096047 0.0020741513
0.056986123 0.050750256 0.0020612848
0.057556808 0.051314984 0.0020547672
0.060035087 0.051115129 0.0021301876
0.060804624 0.051092308 0.0020240571
0.061574776 0.05106733 0.0019040941
0.062714174 0.050696515 0.0020291468
0.063652121 0.051295977 0.0022705202
0.064057067 0.050850898 0.0018703628
0.064959601 0.051056452 0.0016090553
0.065827057 0.051113792 0.0020303016
0.066548988 0.050976776 0.0015906594
0.067241162 0.050928209 0.0017248548
0.068051405 0.051031347 0.0020290022
0.068897367 0.050898489 0.0016227602
0.069643646 0.051066771 0.0019351209
0.070548773 0.050757166 0.0016177641
0.071497574 0.050946772 0.0016682567
0.072442122 0.050777182 0.0018524218
0.073230617 0.050676912 0.0012419443
0.073601179 0.050895277 0.0014487926
0.074724719 0.050951172 0.0018742434
0.075871274 0.050924163 0.0017612798
0.076765515 0.050830171 0.0016102642
0.077391654 0.051103767 0.0017781609
0.078356139 0.051042147 0.0014302691
0.078927644 0.050660472 0.0014467638
0.080463476 0.05058331 0.0010274444
0.081204109 0.05103163 0.0015175687
0.081771761 0.051037647 0.0015876032
0.082736365 0.050778251 0.0011862167
0.083121724 0.050749589 0.0010205626
0.085012518 0.050956491 0.0012363868
0.085388705 0.050786052 0.001381329
0.086339436 0.050770663 0.0013326134
0.087672055 0.050738454 0.0011953169
0.089192286 0.0505285 0.0011442087
0.089956611 0.0506729 0.00089241797
0.09108375 0.051096048 0.0012412271
0.092990018 0.051194724 0.00075568119
0.093744077 0.050850935 0.0010229542
0.09488254 0.051012911 0.00090658478
0.095640115 0.050826833 0.0009684586
0.096015565 0.051214304 0.0010460562
0.097157568 0.050797034 0.0008563702
0.099051766 0.050774578 0.00081217987
0.1001846 0.05115344 0.00087571889
0.10208139 0.050908953 0.00061859982
0.11191029 0.050794054 0.00039733993
0.11756638 0.05123632 -0.00010690372
0.033377808 0.050507445 0.0028806077
0.039152835 0.050231744 0.0026510919
0.045268077 0.050400745 0.0028547549
0.045672756 0.050352763 0.0025629052
0.046841886 0.050299823 0.0022816132
0.047565866 0.050381418 0.0028573046
0.048950329 0.050084919 0.0022392115
0.050686333 0.049848992 0.0020370947
0.053327642 0.049906716 0.0025641746
0.053726383 0.050053656 0.0023011719
0.054502647 0.050207425 0.0021049888
0.055261198 0.050026283 0.0022071493
0.0571803 0.049800154 0.0020781169
0.05774964 0.050180275 0.0021079264
0.058523934 0.050147034 0.0019330501
0.0590933 0.049962725 0.0020029973
0.060246471 0.050495729 0.0018220355
0.060809556 0.050233956 0.0020066097
0.061399829 0.050462846 0.0016710365
0.062512361 0.050540712 0.0022418809
0.063298546 0.05021986 0.0018446792
0.064057685 0.050474014 0.0018913418
0.065023385 0.050242938 0.0016761292
0.065664485 0.050126016 0.0021906029
0.066356033 0.050236281 0.0017061471
0.067305855 0.050237391 0.0017658316
0.067879111 0.050227631 0.0017339499
0.070424438 0.0501265 0.0016258424
0.07130672 0.050108783 0.0017656249
0.072257705 0.050197989 0.0017800753
0.073036209 0.050132781 0.0013958965
0.073797673 0.050125226 0.0013878613
0.076259524 0.050332755 0.0016390225
0.076834254 0.050126214 0.0015607595
0.077795185 0.049893018 0.0013284592
0.078171492 0.049905408 0.0014301843
0.08046516 0.050019134 0.0010576411
0.081220128 0.050034028 0.0011957628
0.081592523 0.050063919 0.0014122122
0.08273875 0.050026007 0.0012263069
0.08312352 0.050185539 0.0010505936
0.083879039 0.050012883 0.0012022741
0.085390598 0.050221875 0.0014112412
0.086534224 0.050004803 0.0012932185
0.087676801 0.049975164 0.0011609984
0.088443138 0.049743962 0.00092895282
0.08919365 0.050152574 0.0011639416
0.08996556 0.049701139 0.00073037483
0.092611365 0.050463948 0.00090802042
0.093745582 0.050475203 0.0010425067
0.09458334 0.049929421 0.00098581566
0.095643237 0.05007549 0.0010073688
0.09867692 0.050202046 0.00076051522
0.099434465 0.050371956 0.00067506125
0.1028404 0.050166763 0.00075282808
0.10586756 0.050121501 0.0006189039
0.039152544 0.049664889 0.0026844316
0.040705934 0.049613632 0.0024342774
0.041859936 0.049595091 0.0023771529
0.043396916 0.049572591 0.0023154255
0.044922665 0.0495717 0.0023953551
0.05068662 0.049282946 0.0020694823
0.052829485 0.049381644 0.0024215833
0.054412402 0.049348496 0.0020819369
0.055256173 0.049285296 0.0023396616
0.056039877 0.049420118 0.0020173579
0.05719484 0.049199928 0.001883677
0.057827696 0.049140867 0.0019470172
0.058328476 0.049408205 0.002065842
0.059088036 0.049412318 0.0021351045
0.060260557 0.049331781 0.0016690961
0.06100611 0.049184062 0.0019898368
0.062554397 0.04929921 0.0015811715
0.062924795 0.049513873 0.0017638532
0.064060278 0.049341094 0.0019407596
0.06511271 0.049415767 0.0018643448
0.065962888 0.049337439 0.0020208671
0.066357069 0.049671091 0.001737376
0.067508608 0.049636938 0.0015762327
0.067894317 0.049432222 0.0015001106
0.068903215 0.049382836 0.0016473746
0.069774993 0.049679641 0.0019814633
0.070548214 0.049637042 0.0017438454
0.071311243 0.049401976 0.0017384554
0.072083175 0.049398579 0.0015087156
0.072975054 0.049440973 0.0014197486
0.073783398 0.049242105 0.001821172
0.075501338 0.049396429 0.0016808659
0.076286376 0.049114164 0.0011143014
0.076835781 0.04956153 0.0015912198
0.080467403 0.049266808 0.0010978389
0.081222415 0.049281638 0.0012359053
0.081794299 0.04926832 0.0011796246
0.082375757 0.049026549 0.00086737913
0.08331798 0.049051449 0.0010825135
0.084067933 0.04946056 0.0013202506
0.084647603 0.04922279 0.0010346721
0.085796975 0.048976358 0.00072148535
0.08653684 0.049252614 0.0013328753
0.087558083 0.049135633 0.0010334938
0.088063821 0.049193826 0.0010281962
0.088834465 0.048937239 0.00062727346
0.0907133 0.049392279 0.0012299516
0.091477998 0.049164649 0.0010197987
0.092144854 0.049229309 0.00085859862
0.094513357 0.049487356 0.00081487629
0.095655248 0.049073454 0.00064352807
0.096409231 0.049277272 0.00077958126
0.097923249 0.04927323 0.00083426968
0.098498017 0.049206164 0.00042382255
0.09943524 0.049646184 0.00087841181
0.10246955 0.049545921 0.00038311351
0.10625142 0.049499296 0.0002788133
0.10852081 0.049097914 0.00024545193
0.040705651 0.048858024 0.0024784845
0.045321908 0.048779875 0.0022198004
0.049539357 0.048726968 0.002104948
0.050687011 0.048528139 0.0021126065
0.052784465 0.048522722 0.0021933799
0.055289209 0.048641816 0.0018603785
0.057195432 0.048634201 0.0019155303
0.057776801 0.048420094 0.0017889761
0.059501186 0.048201036 0.0016919465
0.06006486 0.04859465 0.001811997
0.061027765 0.048375584 0.0016728123
0.061782684 0.048203025 0.0018308724
0.062155012 0.048412427 0.0019795373
0.063314483 0.048361979 0.001708423
0.064261444 0.048372056 0.0018272374
0.065730862 0.048525237 0.0016639188
0.066616908 0.048402738 0.0017400149
0.067127347 0.048704192 0.0016673496
0.068267271 0.048330244 0.0017696833
0.069041304 0.048848342 0.001469495
0.069609582 0.048853111 0.0015321006
0.070432104 0.048730284 0.0016018169
0.071312986 0.048623458 0.001780899
0.072097316 0.048604012 0.0012761897
0.072849989 0.048813418 0.001446862
0.073992595 0.048614517 0.0014490359
0.07451202 0.048505455 0.0011741079
0.075141922 0.048390612 0.0012854822
0.076138467 0.048696723 0.0016911097
0.076850817 0.048386641 0.0013519749
0.078182653 0.048744842 0.0012837986
0.079990521 0.048535131 0.0012494384
0.080839097 0.048555829 0.0014320666
0.081615679 0.048478436 0.00096177193
0.082367875 0.048505284 0.0011799473
0.08332061 0.048483461 0.0010873636
0.083887935 0.048489545 0.0011582333
0.085035332 0.0486256 0.00086638588
0.085785046 0.048481401 0.0012065738
0.086538784 0.048688415 0.0013625766
0.087189682 0.048342049 0.00077785435
0.088451646 0.048223279 0.00089533138
0.089784846 0.048364244 0.00064600469
0.090535089 0.048222516 0.0010019939
0.091295302 0.048389461 0.00089402334
0.093763106 0.048161305 0.00076897768
0.095282741 0.048362147 0.00050937175
0.09641239 0.048525989 0.0008182372
0.097551271 0.048494712 0.0006723064
0.09830714 0.048862465 0.00064193946
0.10171527 0.048460633 0.00066852756
0.10890304 0.048327111 0.00016668439
0.034945816 0.047785558 0.0026294044
0.043396723 0.048061743 0.002403192
0.04685954 0.047620986 0.0021975406
0.052797634 0.047739282 0.0020461062
0.053380311 0.047524747 0.0019164777
0.054516546 0.047789879 0.0020558226
0.05525754 0.047775615 0.0024249984
0.056048721 0.047893383 0.0019849902
0.058478769 0.047594357 0.0018158932
0.059504922 0.047627781 0.0016724784
0.059880164 0.047453079 0.0017960465
0.06102448 0.047445059 0.0018053516
0.061598465 0.047811575 0.0017456661
0.06344153 0.047547936 0.0017787574
0.064464413 0.047773249 0.0016475192
0.065607198 0.048141561 0.0016323708
0.066559277 0.047761373 0.00168315
0.067391112 0.047611702 0.0015750481
0.068149984 0.047615152 0.0016393482
0.068842337 0.04775301 0.0017519807
0.069421887 0.047723431 0.0015864633
0.070169754 0.047948554 0.0018617639
0.071411744 0.047832057 0.0017860394
0.072370775 0.047801279 0.0016333552
0.072856113 0.048045605 0.001390483
0.073866151 0.047805127 0.0015293497
0.074378088 0.047847558 0.0014180401
0.075332001 0.048016507 0.0013316888
0.07608594 0.048035748 0.0015004305
0.07684271 0.047858339 0.0016236505
0.077437393 0.047575798 0.0010378785
0.078551613 0.048041631 0.0016730661
0.079325445 0.047610413 0.0013705441
0.08104109 0.047946181 0.0011732804
0.081807561 0.047726221 0.0010129525
0.082490757 0.047716927 0.0014083232
0.08313708 0.04790001 0.00097943773
0.084265307 0.047571719 0.001378698
0.084846668 0.04769665 0.00097931712
0.085792772 0.047888435 0.0010453814
0.08654616 0.047542218 0.0013045194
0.087387234 0.04772637 0.0010614959
0.088826671 0.047507469 0.0011950559
0.089782573 0.04764194 0.0008803627
0.091115668 0.047412347 0.00068345875
0.091862053 0.047664087 0.001138448
0.094334587 0.047587361 0.00075967237
0.095188469 0.047570597 0.00069377362
0.096164495 0.047643904 0.00081341225
0.097936295 0.047532644 0.00058727269
0.10059047 0.047286071 0.00034554489
0.10134057 0.047531348 0.00075890217
0.10285686 0.047309641 0.00062240195
0.10323678 0.047285363 0.00048068119
0.10474721 0.047656044 0.00051045418
0.10644953 0.047624189 0.00038862787
0.10701653 0.047451295 0.0005258848
0.10777161 0.047631312 0.00050561829
0.11721102 0.047497891 0.00011437247
0.046093702 0.04725058 0.0022249087
0.046434037 0.047334284 0.0028047627
0.051455703 0.047193632 0.0021410694
0.052588884 0.046838306 0.0023740609
0.053380746 0.046958737 0.0019484949
0.05567063 0.046757892 0.0020036825
0.058742482 0.047067963 0.0017009364
0.059509132 0.04667744 0.001673975
0.059849262 0.046968088 0.0023673326
0.061029859 0.046867464 0.0017566935
0.061405219 0.046692796 0.0018810262
0.062175293 0.047043655 0.0017263829
0.063503742 0.046862904 0.0018616242
0.06408108 0.046843905 0.0017659792
0.065609865 0.046633955 0.0017152857
0.06650012 0.047124304 0.0016546717
0.067286253 0.04692268 0.0017042921
0.067885689 0.04683625 0.0019216829
0.068859942 0.04713738 0.0014466033
0.069623351 0.046938892 0.0014310742
0.070480101 0.046838656 0.0014422687
0.07134375 0.046903007 0.0012836892
0.071971476 0.047169104 0.0014046668
0.072488651 0.046883829 0.0012172214
0.073810078 0.047095709 0.001436363
0.074565113 0.046830863 0.0016105536
0.075390436 0.046790395 0.0015961854
0.076031119 0.046885703 0.0014219531
0.076672435 0.04685374 0.001241867
0.07755702 0.046981115 0.0012957952
0.07819017 0.046854164 0.0013265726
0.079081662 0.046953693 0.0011943497
0.079838432 0.046961542 0.0012873814
0.081236273 0.04717999 0.0011324673
0.081810467 0.046785738 0.0010627375
0.082771853 0.046725899 0.00071338168
0.083321445 0.046996776 0.0012873246
0.084161513 0.04684912 0.00076709711
0.08504656 0.046906758 0.00077727926
0.085421063 0.046743188 0.00097115082
0.086550564 0.04696551 0.0012511241
0.087313674 0.046877783 0.0011275895
0.088268854 0.04689718 0.00088569568
0.089790672 0.047043066 0.00067586335
0.090608776 0.04693491 0.00084057078
0.091371439 0.04677986 0.00068838568
0.091866419 0.04690301 0.0011164853
0.093769141 0.046658184 0.00084642344
0.094339855 0.046820346 0.00069517852
0.094904318 0.047026444 0.00083699683
0.097751454 0.046772517 0.00055574416
0.098316967 0.046608884 0.00075699016
0.1005893 0.046940833 0.0005660872
0.1036181 0.046889059 0.00037993817
0.10399657 0.046531573 0.00053840317
0.10626679 0.046488326 0.0003679092
0.10702249 0.046486959 0.00039841142
0.10928669 0.047195368 0.00019957824
0.11721354 0.046908747 -3.73777e-05
0.12512638 0.046632081 -0.00021357043
0.051088251 0.046033021 0.001995377
0.052735493 0.046291724 0.002119672
0.053381313 0.046203967 0.0019911435
0.058743857 0.045936529 0.0017640393
0.059509862 0.04611177 0.0017054514
0.060070053 0.04613829 0.001914948
0.060840406 0.045926262 0.0018092608
0.063504972 0.046108726 0.0019032378
0.064279519 0.046070524 0.0016873919
0.065035805 0.046082001 0.0018062021
0.065809719 0.045856033 0.0016053803
0.066573009 0.045847256 0.0015875644
0.067151003 0.046198793 0.001427535
0.067913711 0.046190538 0.0014133041
0.068853959 0.046032384 0.0016784361
0.069563664 0.04592973 0.0014514055
0.070210278 0.045762789 0.0012138626
0.071156666 0.0465202 0.0012523022
0.071950175 0.046084289 0.0014278898
0.073148616 0.046058249 0.0014450571
0.073991992 0.045815803 0.0017761844
0.074781224 0.046085447 0.0010767302
0.07514552 0.046325807 0.0014373544
0.076107182 0.045907274 0.0012263434
0.076858714 0.046307463 0.0014059579
0.077626377 0.045902483 0.0012754633
0.078189373 0.045739904 0.0014889892
0.078948982 0.046296064 0.0014415798
0.079852737 0.046283931 0.0009832324
0.080939546 0.046260588 0.0010546704
0.081872337 0.046296265 0.0011742297
0.082571186 0.046218541 0.0011143847
0.0831431 0.046019107 0.0010785831
0.084101565 0.046155158 0.00076973159
0.084857143 0.046166178 0.00088430126
0.085615993 0.046161845 0.00089536281
0.086553164 0.046213102 0.0012904634
0.08722306 0.046179377 0.0010991392
0.087960005 0.046061788 0.00077180844
0.088844158 0.04618312 0.00078594917
0.089606769 0.046092521 0.00064164354
0.090368964 0.046064049 0.00049070362
0.09131106 0.046090093 0.00071616098
0.092252575 0.045939233 0.0010252306
0.096046075 0.046069052 0.00082504191
0.09699963 0.045826688 0.0005179171
0.097756647 0.046004783 0.00048307772
0.098320231 0.045857508 0.00079518487
0.10002925 0.045972705 0.00038655335
0.10060111 0.046102148 1.5811063e-05
0.10324241 0.045978781 0.00059679244
0.10475864 0.046090797 0.00015814882
0.10589268 0.045736998 0.00038087834
0.1119361 0.046054792 0.00029173447
0.11457855 0.046016175 0.00016994774
0.12512875 0.046257559 -0.00019558379
0.049173251 0.045300361 0.0020845141
0.051088471 0.045655534 0.0020167837
0.052621245 0.045446765 0.0019761475
0.053388454 0.045622699 0.0019208835
0.056051325 0.045251943 0.002133301
0.057590388 0.045213096 0.0019534943
0.058356505 0.045577299 0.0018855457
0.059510585 0.045546055 0.001736897
0.05990278 0.045140509 0.0015864498
0.061616696 0.045322318 0.0016237905
0.06219817 0.04510548 0.0014734012
0.063123189 0.045361768 0.0019730742
0.06434451 0.045378018 0.0017200562
0.065245226 0.045277573 0.0015170067
0.065812945 0.045284305 0.0015933572
0.066559143 0.045512233 0.0018912207
0.067281149 0.045314223 0.0014466995
0.067914821 0.045250729 0.0014796651
0.06964197 0.045010164 0.0012288906
0.070392691 0.045037862 0.0014575846
0.070954628 0.045436926 0.0016186596
0.071920216 0.045198303 0.0013398423
0.072492212 0.045377441 0.0012984581
0.073820353 0.045193009 0.0014058775
0.074687429 0.04524193 0.0011414399
0.075146452 0.04520287 0.001544765
0.076113932 0.045136943 0.0011491196
0.076835312 0.045321781 0.0011551222
0.077631295 0.045138877 0.0012435024
0.078390501 0.045323774 0.0012516284
0.079154141 0.045211677 0.0011759398
0.080030136 0.045439482 0.001095572
0.080970138 0.045338869 0.00084962579
0.081818335 0.045452718 0.0010242984
0.08256983 0.045482423 0.001264985
0.08340472 0.045484941 0.00089914049
0.08416079 0.045370463 0.001020133
0.084856689 0.045428116 0.0010195177
0.085614823 0.045427524 0.0010559745
0.086383626 0.045189381 0.00076732854
0.087067917 0.045487985 0.0011147442
0.087899067 0.045373868 0.00081439246
0.088850826 0.045286693 0.0007021653
0.089597568 0.045224175 0.0011735854
0.090563402 0.045115247 0.00048662629
0.091125257 0.045334727 0.00072043436
0.093012311 0.045557741 0.0010474839
0.094344564 0.045144536 0.00088478322
0.095543981 0.045261033 0.00088213524
0.096306801 0.045215491 0.00061409688
0.096934378 0.04536137 0.00078031933
0.097565345 0.045479875 0.0007615767
0.10021997 0.045417674 0.00048085209
0.1005978 0.045062982 0.00066095171
0.10135513 0.045409601 0.00048590871
0.1021137 0.045026533 0.00049339095
0.10476072 0.045190029 0.00045838533
0.10740815 0.044979446 0.00045081414
0.10778441 0.045347225 0.00040082866
0.10854366 0.044925239 0.00014271215
0.11722326 0.04522194 4.4846907e-05
0.049168009 0.044934087 0.0021829093
0.051088907 0.044900484 0.0020595358
0.052615497 0.044894177 0.0021003857
0.053389043 0.044867847 0.0019633952
0.055315763 0.044438645 0.0017363827
0.055885825 0.044628903 0.0017679443
0.056844149 0.044424672 0.0017243132
0.061802477 0.0447702 0.0017570278
0.062582716 0.044343106 0.0014788751
0.062963746 0.04452863 0.0014688228
0.064487271 0.044333298 0.0015149508
0.065057077 0.044522084 0.0015377116
0.065613933 0.044371832 0.001839167
0.066574797 0.044529915 0.0016729564
0.067285866 0.044426095 0.0014348447
0.06983573 0.044624105 0.0011960368
0.070586339 0.044652052 0.001426904
0.072120257 0.044604577 0.0011858523
0.072873473 0.044438262 0.0013864974
0.073901892 0.044446539 0.0010665653
0.07465744 0.044458672 0.0011898351
0.075173885 0.044173762 0.00099954079
0.076108888 0.044409275 0.0013622188
0.076881595 0.04417292 0.0010850041
0.077573299 0.044311918 0.0012075023
0.079152375 0.044381246 0.0013333526
0.079882868 0.044454765 0.0010975355
0.080747046 0.044510808 0.0010085215
0.082002945 0.044173941 0.0013646791
0.082643956 0.044506829 0.0010825668
0.083437338 0.044491544 0.0010204348
0.084011436 0.044559326 0.00086732581
0.084898472 0.044558071 0.0010344964
0.085616417 0.044679824 0.0011272607
0.086181723 0.044880908 0.0012354241
0.086942725 0.044681687 0.0012100993
0.087858029 0.044541303 0.0010770236
0.088478096 0.044762701 0.00055392552
0.089805275 0.044568397 0.00059071882
0.090494595 0.044658221 0.0008088937
0.093017407 0.044791926 0.00099225692
0.094541401 0.044543572 0.00067172665
0.09510763 0.044736546 0.00072599482
0.095805168 0.044587981 0.00061072456
0.096810952 0.044553161 0.00085583492
0.09795177 0.044325482 0.00065417564
0.1002219 0.044681255 0.00061870366
0.10060455 0.044456299 0.00039509078
0.10173573 0.044669397 0.00061733276
0.10224397 0.044385143 0.0004259008
0.10438965 0.044217385 0.00025385292
0.10501868 0.044344377 0.00029320037
0.10552558 0.044179115 5.2191783e-05
0.10703425 0.044393625 0.00030440046
0.10892234 0.044575378 0.00035302527
0.11232211 0.044518236 0.00014119921
0.1176042 0.044450577 -4.5449007e-05
0.12927604 0.044305753 -0.00042992458
0.055316303 0.043872632 0.0017680302
0.057615738 0.043647118 0.001650488
0.058757614 0.044022325 0.0016776614
0.062953733 0.043804288 0.0017132196
0.064484239 0.043966364 0.0016043535
0.064942181 0.043736506 0.0016166177
0.06563542 0.043749083 0.0014793298
0.067549787 0.043895639 0.0012850254
0.068680182 0.043923501 0.001536726
0.069837347 0.04387065 0.0012367263
0.070601694 0.043855853 0.0011763566
0.07117147 0.043855246 0.0012028199
0.071733721 0.043878768 0.0013941186
0.0730066 0.043731324 0.0013188163
0.073832512 0.043658122 0.0012949521
0.074528039 0.043597482 0.0013502466
0.075413875 0.04359746 0.0013971976
0.076038323 0.043626759 0.0016318273
0.077070214 0.043617897 0.0011921993
0.077708267 0.043659091 0.0010744154
0.078397654 0.04362049 0.001280088
0.07916262 0.043596905 0.0011585783
0.08001893 0.043678951 0.0011167726
0.08100237 0.043509159 0.0010884164
0.081830494 0.043544095 0.00093839201
0.082646914 0.043628007 0.0011232798
0.083287343 0.043591026 0.00090370583
0.08410126 0.043747894 0.0011560458
0.084803313 0.043838989 0.00095137022
0.085560113 0.043968193 0.0010110985
0.086424954 0.043767538 0.00089390669
0.087184183 0.043760702 0.00088713155
0.087910064 0.04384008 0.00069071678
0.088676251 0.043609522 0.00044917408
0.089804381 0.043837767 0.00077453069
0.093027771 0.043625671 0.00078857108
0.093779728 0.044026822 0.00098118954
0.094547957 0.043584906 0.00058888248
0.094930045 0.043923564 0.00033597834
0.095940016 0.043673012 0.00040112901
0.097194031 0.043971464 0.00078188861
0.098521329 0.043945607 0.00067459792
0.099090099 0.043573461 0.00074782083
0.10023123 0.043511793 0.00038475031
0.10060292 0.043935999 0.00071763713
0.10173921 0.043918159 0.00065499265
0.1043912 0.043670688 0.00039411895
0.10495761 0.043678619 0.00047772238
0.10565209 0.043594744 0.0003711204
0.10779452 0.043456454 0.0003982191
0.11081902 0.043345656 -0.00020471402
0.11232814 0.043396465 0.00022129435
0.11270568 0.043395225 0.0002322346
0.11421557 0.043367691 0.00012133084
0.12363297 0.043975968 -0.00039703306
0.1292772 0.043524601 -0.0006155679
0.057591625 0.042763647 0.0021150943
0.060296971 0.043038584 0.0015328994
0.061434422 0.043047696 0.0016572461
0.063160405 0.042821717 0.0015021977
0.064362496 0.043077119 0.0015809657
0.065244451 0.043028742 0.0017313603
0.066023521 0.043164015 0.001396033
0.06641151 0.042954132 0.0012793932
0.067906119 0.043027706 0.0018672915
0.069077648 0.042747546 0.0013070987
0.070598528 0.043117322 0.0013195684
0.071107462 0.042859994 0.0013180608
0.072762646 0.042829171 0.0011935779
0.074024633 0.042903222 0.001335226
0.074603952 0.042869572 0.001133909
0.075291716 0.042835679 0.0013728957
0.075938351 0.042662054 0.0010819202
0.076871492 0.042904798 0.0014973029
0.077717401 0.042755991 0.00095159514
0.078400463 0.043051101 0.0012787916
0.079368584 0.042975243 0.00080741383
0.079926826 0.042831045 0.0011502011
0.080787703 0.042800996 0.00098871789
0.082647435 0.042759556 0.0012369861
0.08317215 0.042738177 0.00068093254
0.084298544 0.042971399 0.0010419483
0.084810503 0.043064911 0.0008424297
0.085690789 0.042713746 0.0010811083
0.086584903 0.042912837 0.00075837644
0.087151073 0.042738974 0.0008960173
0.088102147 0.043088265 0.00074140565
0.088862062 0.043038797 0.00070198299
0.089715771 0.042883184 0.00071856217
0.090754926 0.04252867 0.0009409308
0.091386475 0.042771962 0.00090974034
0.093026876 0.043265235 0.00091430405
0.094550252 0.043021135 0.00061751227
0.095119663 0.042826783 0.00061280839
0.096140541 0.04305172 0.00065043522
0.097205147 0.043155715 0.00038001942
0.09757594 0.04321767 0.00082508358
0.099286996 0.042961337 0.00045277691
0.099858701 0.042918731 0.00018964289
0.10149933 0.042832721 0.00011628354
0.10496455 0.042703547 0.00027446263
0.1062866 0.042882994 0.00027688593
0.11006473 0.043022167 0.00012907293
0.11044312 0.042842906 0.00021515274
0.11157723 0.042635713 0.00014785444
0.11440628 0.042981301 7.1682036e-05
0.11534971 0.042979479 0.00010760594
0.12138326 0.042512827 -0.00019691233
0.12288914 0.042485319 -0.00030972296
0.053769883 0.042229779 0.0021647937
0.054169059 0.04200067 0.0019164642
0.060297731 0.04247281 0.0015640587
0.063928738 0.042237483 0.001445197
0.065141119 0.04215166 0.0013540697
0.068310402 0.042020086 0.0014893676
0.068943754 0.042144798 0.0015098995
0.071108863 0.042231999 0.0013517342
0.072896101 0.042121399 0.0011185405
0.074029639 0.042139251 0.0013026423
0.074545816 0.042167708 0.0010887494
0.075556472 0.042110655 0.00118487
0.076885752 0.042294104 0.0012118507
0.077653766 0.042074285 0.0010436415
0.078235701 0.041840006 0.00076460629
0.079234891 0.042134807 0.0011085996
0.079933189 0.042061891 0.0010781281
0.080624126 0.042017631 0.001246209
0.0815209 0.041969791 0.00096142991
0.082533374 0.04196408 0.00097508682
0.083293997 0.042078011 0.00092820614
0.084178142 0.04195616 0.0010061518
0.084876277 0.042003211 0.00093085971
0.085835226 0.041949239 0.00060682138
0.086394943 0.041990727 0.00092383171
0.087159671 0.042141475 0.0006953096
0.087736882 0.042095721 0.00040846039
0.089249857 0.042473685 0.0004821883
0.089631394 0.04190537 0.00050087599
0.090761237 0.041940343 0.00080250436
0.09114328 0.042288389 0.00060938089
0.092085749 0.041946478 0.00091411849
0.093793802 0.041737322 0.00086589064
0.094555281 0.042073198 0.000608186
0.095059581 0.042197362 0.00062038866
0.095918469 0.041994963 0.00066176942
0.09708038 0.041814387 0.00069497409
0.098344646 0.042030025 0.00050588883
0.099351361 0.042288639 0.000601721
0.099861018 0.04199785 0.00036142115
0.10099434 0.042366877 0.00035578432
0.10175213 0.041992329 0.00042096106
0.10212818 0.042371456 0.00044606626
0.10307813 0.041957241 0.00024624215
0.10591269 0.042128354 0.00026809238
0.10628817 0.042341854 0.00045635737
0.10723823 0.04189508 2.9726885e-05
0.10780326 0.042095322 0.00013659196
0.11082577 0.041899756 0.00024629151
0.11139233 0.041891154 0.00021571387
0.11346897 0.041849457 3.2998621e-05
0.11535586 0.041844055 9.1991853e-05
0.11573297 0.041826569 -9.9665485e-06
0.11648698 0.041800935 -0.00014912337
0.12176413 0.041752953 -0.00021306798
0.063864976 0.041550331 0.001508621
0.068126187 0.04162864 0.0013990297
0.068694092 0.0416345 0.0014701551
0.070999116 0.041369144 0.0010661485
0.071933925 0.041414805 0.001434345
0.072897926 0.041367963 0.0011586708
0.073850058 0.04135818 0.0011405142
0.074423701 0.041530535 0.001049689
0.075573087 0.041120123 0.00089434418
0.077076532 0.041171268 0.0013311822
0.077845447 0.041321576 0.0010962728
0.078227907 0.041310206 0.0010374149
0.078978732 0.041526526 0.0012622823
0.079948984 0.041255735 0.00074746227
0.080764048 0.041343525 0.00096164434
0.081845917 0.041065644 0.00084350957
0.08254154 0.041186705 0.00084292842
0.08336217 0.041066565 0.00092938868
0.084053494 0.041329954 0.0010398198
0.084889576 0.041016225 0.00065737008
0.08584208 0.041361678 0.00047345483
0.086462289 0.041292362 0.00090339268
0.086983241 0.040968597 0.00043377653
0.089629136 0.041242775 0.00072230119
0.090570889 0.041394021 0.00094565679
0.092089891 0.041370369 0.00085976999
0.093040369 0.041163191 0.00078496872
0.093615703 0.041114669 0.00047625694
0.09443634 0.041048944 0.00050080684
0.095134012 0.041447423 0.00023594103
0.096003368 0.041052572 0.00043070479
0.098539956 0.041253634 0.00038018473
0.099107467 0.041071314 0.00045761932
0.10024375 0.04087555 0.00047033047
0.10061688 0.041643675 0.00056849327
0.10213428 0.041056681 0.00051137898
0.10326796 0.041329544 0.0004937998
0.10566573 0.041415352 0.00011738436
0.10724063 0.041340362 0.00011494011
0.107933 0.041288234 0.00022611348
0.11139607 0.04128873 -3.185356e-05
0.11347102 0.041474305 5.1155686e-05
0.11460277 0.041406687 -0.0003610584
0.11498147 0.04126386 -2.2063963e-05
0.12251859 0.041352689 -0.00033395551
0.13004532 0.040886436 -0.0005743308
0.13229556 0.041220319 -0.00076023676
0.059165686 0.040570442 0.0014939087
0.059922419 0.040392332 0.0016189935
0.063363828 0.040721569 0.0014446059
0.063940383 0.040517367 0.0013758321
0.066420779 0.040490899 0.0013217144
0.067186408 0.040475123 0.0012514417
0.072698243 0.040651571 0.0014484564
0.07379397 0.040649485 0.0010478203
0.075445883 0.040500648 0.0009780624
0.076334916 0.040550157 0.00092854537
0.076904982 0.040546905 0.00093568
0.077668786 0.040528499 0.00084645487
0.080143154 0.040493935 0.00073366752
0.080711454 0.040495686 0.0007757768
0.08165586 0.040509932 0.0009252301
0.082606778 0.04049737 0.00088707916
0.083372891 0.040463645 0.00068992446
0.084128633 0.040288184 0.00082833902
0.08470495 0.040438417 0.00058237067
0.086220421 0.040438976 0.00066560274
0.086971901 0.040469814 0.00092096324
0.089248367 0.040454272 0.00093006343
0.090387553 0.040623453 0.00084685185
0.091530673 0.0402155 0.00070171407
0.092093125 0.040432714 0.00092611066
0.092920721 0.04032727 0.00067156577
0.093680508 0.040432379 0.00056272908
0.094439991 0.040415391 0.00048258901
0.095137894 0.040508073 0.00028399774
0.096007317 0.040367875 0.00040726713
0.09671697 0.04024449 0.0002861293
0.098544128 0.040494502 0.000364359
0.099361174 0.040396042 0.00060053635
0.099871524 0.040459428 0.00018668408
0.10075219 0.040235784 0.00043240516
0.10239059 0.040592704 0.00036650943
0.10327634 0.040547434 9.4521791e-05
0.10422034 0.040264193 0.00036700815
0.10504117 0.040525001 2.8072391e-05
0.10566999 0.040308863 0.00031229248
0.10781281 0.040716633 -0.00025232416
0.10932224 0.040737893 -2.6564579e-05
0.110456 0.040545601 7.9232268e-06
0.11120995 0.040742785 0.00010389043
0.11385254 0.040702563 -4.2759813e-05
0.11435698 0.0404291 -0.00016872678
0.1164955 0.040300824 -7.7131204e-05
0.12252269 0.040187582 -0.00056655332
0.12289961 0.040596884 -0.00032317638
0.13230063 0.040471677 -0.00072550634
0.056478992 0.039494719 0.0018113391
0.060313702 0.039801784 0.0014972105
0.063755423 0.040128522 0.0013037284
0.066422209 0.039736815 0.0013623678
0.06718827 0.039907504 0.0012668243
0.070623346 0.039673075 0.0011335672
0.07271114 0.039862741 0.0012424882
0.073659852 0.040051449 0.0012843723
0.074417502 0.039683372 0.0014060091
0.075449087 0.039867546 0.00097367051
0.076204233 0.039880626 0.0011054571
0.077090673 0.039815228 0.0011368415
0.079004295 0.039567877 0.00082938815
0.080019444 0.039677367 0.00076281792
0.080513358 0.039785147 0.0011035493
0.082044423 0.03954244 0.00080809649
0.082671292 0.039687373 0.00097164023
0.083438635 0.039772134 0.00071759126
0.083928712 0.03959167 0.00125423
0.085470006 0.039479237 0.00053914776
0.086346172 0.039640125 0.00082891481
0.086973265 0.03990826 0.00097038341
0.088971607 0.039677478 0.00078242528
0.089827038 0.039476264 0.00074367318
0.090777077 0.039458234 0.00066520507
0.091417246 0.039528146 0.00030013523
0.092034869 0.039607372 0.00089158909
0.092860848 0.039634593 0.00068063242
0.093619823 0.039623071 0.000638403
0.094384693 0.039570905 0.00030918722
0.095135212 0.03961435 0.00065470929
0.095893174 0.039607026 0.00064214133
0.096655414 0.039566226 0.00039305654
0.097599722 0.039396897 0.00058228662
0.098733462 0.039769564 0.00059896964
0.099305555 0.039546888 0.00039260043
0.10000243 0.039693315 0.0001267842
0.10088229 0.039477922 0.00043130619
0.10151549 0.039445926 0.00023747329
0.10214905 0.03946602 -3.3140182e-05
0.10346969 0.039668124 0.00012694579
0.10422403 0.039687295 0.00030002603
0.10498059 0.039676812 0.00026471727
0.1058013 0.03953059 0.00016400823
0.10724829 0.039836388 0.00017217966
0.10781758 0.039278023 0.00026260084
0.10932807 0.039611958 2.8176699e-05
0.11046077 0.039615542 0.00011091866
0.11197042 0.039777204 -4.6286732e-06
0.11385766 0.039737582 -0.000187987
0.11442363 0.039733294 -0.00018944638
0.1153679 0.039548893 -0.000110697
0.12252611 0.039829638 -0.00043090386
0.06605532 0.038575575 0.0011901625
0.066807933 0.039346009 0.0013056144
0.070245355 0.039293323 0.0011132762
0.070993267 0.03914148 0.0014226062
0.072717279 0.039282206 0.001164401
0.073481135 0.038893972 0.001143299
0.074822061 0.039040115 0.0009033524
0.075380459 0.039076664 0.0011924186
0.076090053 0.039091889 0.00088822376
0.078373246 0.038942829 0.00084690726
0.079197451 0.038996153 0.00081948051
0.080147661 0.03898811 0.00081203785
0.080520153 0.038828243 0.0010430054
0.081282124 0.038814772 0.00098678633
0.082620546 0.039140023 0.00067318324
0.083573043 0.038933452 0.00060169399
0.084142558 0.03892877 0.00059769116
0.084904477 0.038725447 0.00053912401
0.085471064 0.038733672 0.00062694144
0.086347006 0.039019268 0.00090616266
0.087175362 0.039106719 0.00067299511
0.087752186 0.038694862 0.00046866015
0.08875525 0.038976789 0.00072898529
0.089642093 0.03889944 0.00067374273
0.090781853 0.03887916 0.00058862148
0.09154366 0.038852982 0.00044168625
0.092297547 0.03905613 0.00057828706
0.092868775 0.038851641 0.00049996236
0.093625925 0.03885103 0.00053496589
0.094385222 0.038835987 0.0004669365
0.095146738 0.038803831 0.00027764332
0.095902994 0.038624737 0.00038848002
0.096723169 0.038742106 0.00036769407
0.097985655 0.038790833 0.00033033243
0.098740824 0.038982727 0.00038794661
0.099314541 0.038745116 7.3511619e-05
0.099876098 0.03879685 0.00046952767
0.10082233 0.038969036 0.00039705867
0.10164542 0.038808875 0.00019736867
0.10240275 0.03867612 0.0001883381
0.10328599 0.03854182 0.00017487118
0.10404073 0.038645163 0.00027558533
0.10498527 0.038736507 0.00030089868
0.10568021 0.038875278 -2.0285137e-05
0.10819989 0.038510215 0.0001990078
0.11046562 0.038729679 8.2394574e-05
0.11210091 0.038938936 -0.00013733655
0.11272991 0.038960036 -0.00040190015
0.11367518 0.038627744 -3.2349955e-05
0.11461537 0.039169945 -0.00015776278
0.11932906 0.038913116 -0.00040235743
0.11989649 0.038742416 -0.00024609454
0.12629312 0.038622327 -0.00077803666
0.053816453 0.03798198 0.0017352339
0.070627548 0.037788477 0.0012337607
0.072922125 0.038486846 0.00091779535
0.074050553 0.038333356 0.0012363349
0.0748263 0.038279124 0.00088897417
0.07621187 0.038361505 0.0010978675
0.077728257 0.038242932 0.0012334487
0.079386279 0.038254261 0.00094863027
0.079950564 0.038272075 0.0011051304
0.08072225 0.038221493 0.00078369072
0.08129058 0.038223308 0.00082591199
0.084334083 0.038178191 0.00066151191
0.08483991 0.038114227 0.00068171672
0.086232416 0.03797669 0.00067331316
0.087870337 0.038242329 0.00085052545
0.088884622 0.038345426 0.00073676999
0.089570925 0.038100515 0.00064657233
0.090399638 0.038162194 0.00085889269
0.09141241 0.038208012 0.00078705489
0.092175372 0.038052328 0.00061654137
0.092875652 0.038075659 0.00036737113
0.093630813 0.038270295 0.00044422224
0.094451576 0.038143337 0.00048070401
0.095086202 0.038117222 0.00032650493
0.095902339 0.038082685 0.00057254569
0.096779458 0.038067568 0.00023874477
0.097615741 0.03805897 3.9669685e-05
0.098557979 0.038205381 0.00023257942
0.099313647 0.038211409 0.00031410577
0.099882588 0.038016148 0.00029945839
0.10101321 0.038233876 0.00056075724
0.10215417 0.037984777 0.00019055745
0.10328849 0.038157303 0.00012992788
0.10404342 0.03805228 0.00031848019
0.10480256 0.038122267 -4.3368433e-05
0.10744852 0.037752055 0.00014633313
0.10820513 0.03772575 -3.7564896e-06
0.10870745 0.037865736 0.00012160232
0.10971408 0.038090706 -2.0517036e-05
0.11034369 0.038180232 -0.00024844706
0.11122486 0.038066164 -0.00011950079
0.11235639 0.038237546 -0.00018739933
0.11282918 0.038045365 -0.00018719211
0.11348747 0.038442366 -1.7039478e-05
0.11688707 0.037647706 -0.00012677722
0.1176374 0.038404703 -7.6525845e-05
0.11952204 0.038376346 -0.00018385844
0.11989869 0.038367439 -0.00022837287
0.1236659 0.038128462 -0.00039826846
0.12554003 0.037822474 -0.0011422946
0.12629551 0.038247738 -0.0007606037
0.070638351 0.037194788 0.0010609527
0.072734118 0.037733357 0.00094814505
0.07369075 0.037335232 0.00086435606
0.074827753 0.037714049 0.00091864518
0.077106349 0.036962006 0.0010867165
0.077678666 0.037323952 0.00099041243
0.079966545 0.037466697 0.00077093276
0.080663294 0.037274897 0.00079169753
0.081682563 0.037242603 0.00061140512
0.082441457 0.037239611 0.0006289985
0.084146447 0.037613813 0.00068166596
0.08490511 0.037425324 0.00072795944
0.085669905 0.037394293 0.00054447586
0.086424984 0.03740656 0.00067157135
0.087191291 0.03718074 0.00044924533
0.087745748 0.03761806 0.00089713745
0.089465424 0.037356701 0.0004688655
0.090410203 0.037367225 0.00059254933
0.092059925 0.037254106 0.00031746342
0.092939436 0.037398964 0.00049655116
0.093633376 0.037338056 0.00054762117
0.094336137 0.037340913 0.00015073665
0.095152497 0.037303433 0.00037608086
0.095910333 0.037295766 0.00035940809
0.096986488 0.037203312 0.00020293077
0.097805128 0.037452411 0.00022174139
0.098562203 0.037446395 0.0002170091
0.099135481 0.037032481 -9.6731819e-06
0.10007567 0.037258852 0.00030545937
0.10102225 0.037246287 0.00026266184
0.10152886 0.037160739 0.00012711715
0.10235028 0.037014998 2.6905444e-05
0.10310504 0.03720497 7.1485527e-05
0.10367004 0.037052669 0.00036457041
0.10518336 0.037032783 0.00029766094
0.10593858 0.037215319 0.00028846925
0.10631841 0.037181679 6.5679662e-05
0.10719959 0.037130333 0.0001940662
0.10801881 0.037170105 6.8144873e-05
0.10877635 0.037113819 -0.00029866491
0.10971852 0.037323121 -0.00010476308
0.11042066 0.037200898 -0.00017161015
0.11122876 0.037451152 -0.00046564871
0.11223613 0.03718704 -5.1450916e-05
0.11292958 0.036921814 -0.00011280598
0.11443906 0.036904369 -0.0001630187
0.11689092 0.036881115 -0.0002082102
0.11764289 0.037247747 -0.00024952414
0.11877041 0.037580017 -0.00051706797
0.11924415 0.037212193 -0.00042459276
0.12216475 0.037198495 -0.00037790602
0.12328956 0.037526574 -0.00067443494
0.12366966 0.037165444 -0.00054044509
0.12573861 0.037532091 -0.00051336782
0.074827068 0.036221821 0.0011056319
0.075210862 0.036581594 0.00098207849
0.077113427 0.036377728 0.00097779534
0.08015772 0.036716238 0.00083923759
0.080664329 0.03665062 0.00084786536
0.081681661 0.036316629 0.00077010784
0.082069792 0.036466546 0.00050249742
0.085865155 0.03681206 0.00045499182
0.0864283 0.036835905 0.0006560036
0.087193996 0.036612984 0.00045359763
0.087762423 0.036796659 0.00044087972
0.088907897 0.036380164 0.00022677495
0.089586586 0.036542431 0.00033932948
0.090417765 0.036589175 0.00044557289
0.091558956 0.03637474 0.00032240222
0.0921885 0.0365052 0.00038506975
0.092943624 0.036639385 0.000480633
0.094207272 0.036565959 0.0004708122
0.095225796 0.036441524 7.8412006e-05
0.095849715 0.036488157 0.00044752774
0.096938662 0.036552783 0.00023986562
0.09761896 0.036339641 0.00037524314
0.098506987 0.03641602 6.0136663e-05
0.09932249 0.036508802 0.00031614956
0.10001392 0.036466539 0.00050133513
0.10090329 0.036399264 5.9328042e-05
0.10166089 0.036501445 -7.4882992e-05
0.10241893 0.036357634 -0.00016519288
0.10317406 0.036482826 -0.0001333449
0.10405208 0.036295284 0.00037787668
0.10493632 0.036379635 0.00012012431
0.10632379 0.036401946 -0.00010463735
0.10745955 0.036179155 -0.00029230816
0.10802437 0.036379315 -0.00018308777
0.10858791 0.036615651 0.00018727826
0.1093451 0.036404956 6.8462919e-05
0.11010364 0.036137171 -0.00046430249
0.1116124 0.036183227 -5.5570621e-05
0.11198907 0.036358465 -0.00013548974
0.11312244 0.036159437 -0.00015266566
0.11576349 0.036129475 -0.00023838226
0.11689307 0.03650596 -0.00019049039
0.11764649 0.036253102 -0.00061631342
0.11877685 0.036452834 -0.0004805699
0.11928052 0.036191966 -0.00052228197
0.12028804 0.036096901 -0.00025012763
0.12179171 0.036233217 -0.00055475766
0.12931472 0.036727265 -0.00070038578
0.060722288 0.035973389 0.0013276092
0.061487183 0.035963088 0.0012926839
0.069880925 0.035502933 0.0011445477
0.070386462 0.035630431 0.0011774874
0.073695458 0.035451137 0.00096315378
0.074645676 0.035634186 0.00096281758
0.077123195 0.035784263 0.00080154301
0.077493407 0.035816193 0.0010532001
0.078261651 0.035410192 0.0008987335
0.08016374 0.035948794 0.00077500986
0.080548033 0.035743423 0.00067988015
0.08129143 0.035801668 0.0011422592
0.082060285 0.035761047 0.00088570546
0.084342636 0.035729658 0.00077365595
0.084816948 0.035727322 0.00078114239
0.086253427 0.035657819 0.00034773769
0.087392583 0.035829287 0.00027501257
0.087767862 0.036030732 0.00038157194
0.088714138 0.035848841 0.00048455363
0.089530133 0.035934463 0.00068923761
0.090542778 0.03592005 0.00063627004
0.091306083 0.035764575 0.00046230899
0.092031471 0.035643362 0.00053618383
0.092946492 0.035887968 0.00052474975
0.093447775 0.035664912 0.00076430268
0.094207719 0.036013946 0.00058651832
0.095102705 0.035690527 0.00011547841
0.095979512 0.03573237 0.00046419259
0.096862182 0.035794802 0.0005038199
0.097750403 0.035813522 0.00022555818
0.098632403 0.035817511 0.00029935408
0.099326171 0.035754509 0.00033458043
0.10002223 0.035669375 0.00020936038
0.10064801 0.035951518 0.00045779534
0.10159836 0.035721324 0.00020769984
0.10235523 0.035712965 0.00018465798
0.10311058 0.035897672 0.00019032182
0.10424577 0.035704948 0.00022085803
0.10500423 0.035667781 -1.1566095e-05
0.10594962 0.035480686 4.9941242e-05
0.10632741 0.035652582 -5.5880286e-05
0.10733468 0.035596214 4.2441301e-05
0.10802869 0.035617929 -0.00022307411
0.10878377 0.035619378 -0.00017494336
0.10960188 0.035671409 -0.00021376275
0.11029561 0.035410501 -0.00024492294
0.1111443 0.035510343 -0.00016362593
0.11199317 0.035601594 -0.00014454219
0.11274926 0.035387661 -0.0002895724
0.11538851 0.03576671 -0.00014900044
0.11576473 0.035702497 -0.00059666671
0.11689882 0.035354022 -0.00032929471
0.11764961 0.035687562 -0.00061189802
0.11840345 0.035508409 -0.00077942014
0.12104523 0.035323616 -0.00034640031
0.12179623 0.035483394 -0.00051982934
0.12405743 0.035283882 -0.00048782956
0.1293194 0.035581633 -0.00080692954
0.065694846 0.034771092 0.0011317909
0.070643097 0.034933839 0.0011878237
0.072173141 0.034714215 0.0010482827
0.074463896 0.034674037 0.00087066181
0.075605869 0.035036433 0.00080386875
0.076372452 0.034637339 0.0006987052
0.076940566 0.034827203 0.00072914222
0.081698038 0.034950554 0.00048618647
0.084348381 0.034962699 0.00071044196
0.084727809 0.034775574 0.00074703665
0.08625029 0.03530186 0.00051508984
0.088154949 0.035065763 0.00027057878
0.088621043 0.034824878 0.00061126612
0.089794651 0.034887813 0.00043808576
0.090612508 0.034901332 0.00057779369
0.091330968 0.034907419 0.00065889792
0.092324808 0.034853283 0.00031213113
0.092889234 0.034873351 0.00048780674
0.093647122 0.035052072 0.00044787489
0.094406441 0.03503678 0.00037406664
0.09516754 0.035008747 0.00020748773
0.095854804 0.034992363 0.00058396044
0.096614823 0.035091102 0.00042092195
0.097627945 0.034998227 0.00025418866
0.09857361 0.034997568 0.00029651565
0.099266857 0.035059307 0.00032140268
0.099895597 0.035194002 0.00041547604
0.10090704 0.034926027 0.00035141967
0.10160353 0.034952648 0.00011944026
0.10229703 0.034888037 0.000142253
0.10317771 0.034903526 0.00029997295
0.10431331 0.035000354 0.00014253007
0.10507112 0.034854628 3.6069192e-05
0.10576336 0.034919545 8.4649771e-05
0.10651878 0.03492295 0.0001470563
0.10796846 0.034946505 -6.9410075e-05
0.10885057 0.034815408 -6.3211657e-05
0.1096065 0.034792818 -0.00019092811
0.11029886 0.034838751 -0.00028149271
0.11133698 0.034828532 -0.00030495925
0.11218598 0.034848124 -0.00011947053
0.11294119 0.03478983 -0.00050860783
0.11369674 0.034628034 -0.00027343724
0.1142607 0.03501334 -0.00018997304
0.11576981 0.035003796 -0.00018525869
0.11740381 0.034829646 -0.00045758998
0.11841042 0.034784876 -0.00027539907
0.11991733 0.034545302 -0.00057373522
0.12066923 0.034510858 -0.0007893038
0.12217504 0.034695424 -0.00074513955
0.13007858 0.034843262 -0.00065653399
0.071926817 0.034194775 0.00093803462
0.077127375 0.034277268 0.00087962369
0.077894151 0.034249634 0.00071499986
0.079411097 0.033878058 0.00084963813
0.080175154 0.033857983 0.00073994487
0.083596803 0.033821538 0.00064387219
0.084096052 0.033971161 0.00084118149
0.08511015 0.033833671 0.00081011397
0.087398857 0.034134939 0.00035166321
0.088161223 0.033926375 0.00024871854
0.088712357 0.034010481 0.00089758635
0.089520797 0.034203213 0.00040381285
0.090503655 0.034065243 0.0005529155
0.091312081 0.033890203 0.00060623209
0.092135042 0.034029134 0.00050822995
0.092889473 0.03395398 0.00069012353
0.093695529 0.034142803 0.00016832189
0.094376191 0.034145515 0.00022235303
0.095077723 0.034062684 0.0002050316
0.095991224 0.034190215 0.00026030489
0.096750505 0.034292679 0.00012390036
0.097757608 0.034122277 0.00031319028
0.098644786 0.033903819 0.00014196546
0.099145398 0.034055229 0.00035298429
0.10103916 0.034387641 0.00010902528
0.10160623 0.034208514 0.00021109404
0.10255118 0.034388933 0.00019381987
0.10318214 0.034141064 0.00025689229
0.10406698 0.034163687 3.3588149e-06
0.10482337 0.034241933 -7.8989659e-05
0.10557897 0.034154858 1.3532117e-05
0.10646202 0.034071509 -9.2687085e-05
0.10746965 0.03411999 -0.00014977809
0.10809879 0.034181561 -0.00012917863
0.10885409 0.034072209 3.0749012e-05
0.10973544 0.034120504 -3.3915043e-05
0.11030267 0.034089956 -0.00023081386
0.11124519 0.034288798 -0.00011149654
0.11219013 0.034084804 -0.00017592497
0.11313275 0.034258433 -0.00024164002
0.1136988 0.034255624 -0.00023438921
0.1153969 0.034265507 -7.8212935e-05
0.11690646 0.034046464 -0.0002261647
0.1174086 0.033945471 -0.00048215734
0.11841489 0.033821989 -0.00041541504
0.11935484 0.033763997 -0.00079705659
0.1200459 0.03404469 -0.00054839207
0.12079939 0.033901151 -0.00064276019
0.12161551 0.033963293 -0.00060841488
0.12443938 0.033937193 -0.00066274824
0.12632169 0.034125865 -0.00057026651
0.12719515 0.03394397 -0.00094131799
0.13008256 0.033889964 -0.00073596556
0.077522375 0.033104464 0.00064304122
0.078280516 0.033292677 0.00067074969
0.080185108 0.03326248 0.00054292008
0.081706055 0.033059679 0.00052155275
0.083602607 0.033240467 0.00055210036
0.084164284 0.033269238 0.00079409941
0.084985629 0.033330888 0.00082410942
0.088165291 0.032982551 0.00027270429
0.088913754 0.033211734 0.00060556806
0.08979658 0.033155534 0.0007016575
0.090507142 0.033235371 0.00057971058
0.091386989 0.033333723 0.00022917101
0.092137314 0.033188712 0.0005958376
0.093087234 0.032985166 0.00053825672
0.093662314 0.033124276 0.00019343081
0.09435986 0.033160985 3.2339711e-05
0.095240764 0.033051461 0.00019978499
0.095839888 0.033385482 0.00013397983
0.09763816 0.033162538 0.00020738575
0.098490782 0.033270363 0.00011358643
0.099908724 0.03327173 0.00019424688
0.10085509 0.033082385 0.00023961486
0.10154685 0.033275791 0.00030561583
0.10230465 0.033258818 0.00021692133
0.10306107 0.03337327 0.00016789883
0.10407229 0.03330268 -7.1770512e-05
0.10501511 0.033414956 0.00010618288
0.10577308 0.033379581 -0.00011857413
0.10652729 0.033401802 8.3622057e-05
0.10747224 0.03356168 -8.5595995e-05
0.107977 0.033425126 -0.00013885507
